ply
format ascii 1.0
element vertex 907
property float x
property float y
property float z
property uchar red
property uchar green
property uchar blue
element face 0
property list uchar int vertex_indices
end_header
8.485281374238571 15.0 8.485281374238571 198 92 14
9.899494936611665 15.0 9.899494936611665 204 87 0
11.313708498984761 15.0 11.313708498984761 208 84 0
1.1755705045849463 15.0 1.618033988749895 140 118 106
2.3511410091698925 15.0 3.23606797749979 153 114 89
3.526711513754839 15.0 4.854101966249685 166 110 70
4.702282018339785 15.0 6.47213595499958 176 105 49
5.877852522924732 15.0 8.090169943749475 184 102 25
7.053423027509678 15.0 9.70820393249937 189 99 0
8.228993532094623 15.0 11.326237921249264 194 96 0
0.9079809994790936 15.0 1.7820130483767356 138 119 104
1.8159619989581872 15.0 3.564026096753471 151 116 84
2.723942998437281 15.0 5.346039145130207 162 112 62
3.6319239979163744 15.0 7.128052193506942 170 109 38
4.539904997395468 15.0 8.910065241883679 176 107 0
5.447885996874562 15.0 10.692078290260413 180 105 0
6.355866996353655 15.0 12.474091338637148 183 103 0
0.6180339887498949 15.0 1.902113032590307 136 120 101
1.2360679774997898 15.0 3.804226065180614 148 117 79
1.8541019662496847 15.0 5.706339097770921 157 115 55
2.4721359549995796 15.0 7.608452130361228 163 113 26
3.0901699437494745 15.0 9.510565162951535 167 111 0
3.7082039324993694 15.0 11.412678195541842 170 110 0
0.31286893008046185 15.0 1.9753766811902755 134 121 99
0.6257378601609237 15.0 3.950753362380551 143 120 75
0.9386067902413855 15.0 5.926130043570827 150 118 48
1.2514757203218474 15.0 7.901506724761102 155 117 13
1.5643446504023093 15.0 9.876883405951379 159 116 0
1.877213580482771 15.0 11.852260087141653 161 115 0
1.2246467991473532e-16 15.0 2.0 130 122 98
2.4492935982947064e-16 15.0 4.0 138 122 72
3.6739403974420594e-16 15.0 6.0 143 121 43
4.898587196589413e-16 15.0 8.0 147 120 0
6.123233995736766e-16 15.0 10.0 150 120 0
7.347880794884119e-16 15.0 12.0 151 119 0
-0.3128689300804616 15.0 1.9753766811902755 128 123 98
-0.6257378601609233 15.0 3.950753362380551 133 123 71
-0.9386067902413848 15.0 5.926130043570827 136 124 40
-1.2514757203218465 15.0 7.901506724761102 139 123 0
-1.5643446504023082 15.0 9.876883405951379 140 123 0
-1.8772135804827697 15.0 11.852260087141653 142 123 0
-0.6180339887498947 15.0 1.9021130325903073 125 124 98
-1.2360679774997894 15.0 3.8042260651806146 127 125 72
-1.854101966249684 15.0 5.706339097770922 129 126 42
-2.4721359549995787 15.0 7.608452130361229 130 126 0
-3.0901699437494736 15.0 9.510565162951536 131 127 0
-3.708203932499368 15.0 11.412678195541844 131 127 0
-0.9079809994790935 15.0 1.7820130483767358 121 125 100
-1.815961998958187 15.0 3.5640260967534716 121 127 76
-2.7239429984372805 15.0 5.346039145130208 120 128 47
-3.631923997916374 15.0 7.128052193506943 119 130 0
-4.5399049973954675 15.0 8.910065241883679 117 130 0
-5.447885996874561 15.0 10.692078290260415 117 131 0
-1.175570504584946 15.0 1.618033988749895 118 126 102
-2.351141009169892 15.0 3.23606797749979 114 128 80
-3.5267115137548384 15.0 4.854101966249685 110 131 56
-4.702282018339784 15.0 6.47213595499958 105 133 22
-5.87785252292473 15.0 8.090169943749475 101 134 0
-7.053423027509677 15.0 9.70820393249937 98 135 0
-1.414213562373095 15.0 1.4142135623730951 114 126 106
-2.82842712474619 15.0 2.8284271247461903 105 130 88
-4.242640687119285 15.0 4.242640687119286 95 133 69
-5.65685424949238 15.0 5.656854249492381 85 136 47
-7.071067811865475 15.0 7.0710678118654755 73 138 9
-8.48528137423857 15.0 8.485281374238571 60 141 0
-9.899494936611664 15.0 9.899494936611665 45 142 0
-1.6180339887498947 15.0 1.1755705045849465 110 127 109
-3.2360679774997894 15.0 2.351141009169893 98 131 96
-4.854101966249684 15.0 3.5267115137548393 83 135 81
-6.472135954999579 15.0 4.702282018339786 66 138 65
-8.090169943749473 15.0 5.877852522924733 41 141 47
-9.708203932499368 15.0 7.0534230275096785 0 144 22
-11.326237921249263 15.0 8.228993532094625 0 146 0
-12.944271909999157 15.0 9.404564036679572 0 149 0
-14.562305898749052 15.0 10.580134541264519 0 151 0
-1.7820130483767356 15.0 0.9079809994790937 107 128 113
-3.564026096753471 15.0 1.8159619989581874 90 132 104
-5.346039145130207 15.0 2.7239429984372814 68 136 95
-7.128052193506942 15.0 3.631923997916375 33 140 86
-8.910065241883679 15.0 4.539904997395468 0 143 78
-10.692078290260413 15.0 5.447885996874563 0 146 69
-12.474091338637148 15.0 6.355866996353656 0 149 61
-14.256104387013885 15.0 7.26384799583275 0 152 54
-16.03811743539062 15.0 8.171828995311843 0 154 47
-17.820130483767358 15.0 9.079809994790937 0 156 41
-19.60214353214409 15.0 9.98779099427003 0 157 35
-21.384156580520827 15.0 10.895771993749126 0 159 30
-23.166169628897563 15.0 11.803752993228219 0 160 25
-24.948182677274296 15.0 12.711733992707313 0 161 20
-1.902113032590307 15.0 0.618033988749895 105 128 116
-3.804226065180614 15.0 1.23606797749979 85 132 109
-5.706339097770921 15.0 1.8541019662496852 58 137 104
-7.608452130361228 15.0 2.47213595499958 0 141 98
-9.510565162951535 15.0 3.090169943749475 0 144 94
-11.412678195541842 15.0 3.7082039324993703 0 147 90
-13.31479122813215 15.0 4.326237921249265 0 150 87
-15.216904260722456 15.0 4.94427190999916 0 152 85
-17.119017293312762 15.0 5.562305898749055 0 155 82
-19.02113032590307 15.0 6.18033988749895 0 156 81
-20.923243358493377 15.0 6.798373876248845 0 158 80
-22.825356391083684 15.0 7.416407864998741 0 159 78
-24.72746942367399 15.0 8.034441853748636 0 161 77
-26.6295824562643 15.0 8.65247584249853 0 162 76
-1.9753766811902753 15.0 0.31286893008046196 104 128 118
-3.9507533623805506 15.0 0.6257378601609239 82 133 113
-5.926130043570826 15.0 0.9386067902413859 52 137 110
-7.901506724761101 15.0 1.2514757203218478 0 141 107
-9.876883405951377 15.0 1.5643446504023097 0 144 104
-11.852260087141651 15.0 1.8772135804827719 0 148 102
-13.827636768331928 15.0 2.1900825105632338 0 150 100
-15.803013449522203 15.0 2.5029514406436957 0 153 99
-17.778390130712477 15.0 2.8158203707241576 0 155 98
-19.753766811902754 15.0 3.1286893008046195 0 156 97
-21.72914349309303 15.0 3.4415582308850814 0 158 96
-23.704520174283303 15.0 3.7544271609655437 0 160 95
-25.67989685547358 15.0 4.067296091046005 0 161 95
-27.655273536663856 15.0 4.3801650211264676 0 162 95
-2.0 15.0 2.4492935982947064e-16 103 128 120
-4.0 15.0 4.898587196589413e-16 79 133 118
-6.0 15.0 7.347880794884119e-16 46 137 116
-8.0 15.0 9.797174393178826e-16 0 141 114
-10.0 15.0 1.2246467991473533e-15 0 144 113
-12.0 15.0 1.4695761589768238e-15 0 148 112
-14.0 15.0 1.7145055188062944e-15 0 150 112
-16.0 15.0 1.959434878635765e-15 0 153 112
-18.0 15.0 2.204364238465236e-15 0 155 111
-20.0 15.0 2.4492935982947065e-15 0 157 111
-22.0 15.0 2.6942229581241772e-15 0 158 111
-24.0 15.0 2.9391523179536475e-15 0 160 112
-26.0 15.0 3.184081677783118e-15 0 161 112
-28.0 15.0 3.429011037612589e-15 0 162 112
-1.9753766811902755 15.0 -0.31286893008046146 102 128 122
-3.950753362380551 15.0 -0.6257378601609229 77 133 122
-5.926130043570827 15.0 -0.9386067902413844 41 137 122
-7.901506724761102 15.0 -1.2514757203218458 0 141 122
-9.876883405951379 15.0 -1.5643446504023073 0 144 123
-11.852260087141653 15.0 -1.8772135804827688 0 148 125
-13.827636768331928 15.0 -2.1900825105632302 0 150 126
-15.803013449522204 15.0 -2.5029514406436917 0 153 127
-17.77839013071248 15.0 -2.815820370724153 0 155 128
-19.753766811902757 15.0 -3.1286893008046146 0 157 130
-21.72914349309303 15.0 -3.441558230885076 0 158 131
-23.704520174283306 15.0 -3.7544271609655375 0 160 132
-1.9021130325903073 15.0 -0.6180339887498946 101 128 125
-3.8042260651806146 15.0 -1.2360679774997891 75 132 127
-5.706339097770922 15.0 -1.8541019662496838 34 136 130
-7.608452130361229 15.0 -2.4721359549995783 0 140 133
-9.510565162951536 15.0 -3.0901699437494727 0 144 137
-11.412678195541844 15.0 -3.7082039324993676 0 147 140
-13.314791228132151 15.0 -4.326237921249262 0 150 142
-15.216904260722458 15.0 -4.9442719099991566 0 152 146
-17.119017293312766 15.0 -5.5623058987490515 0 155 149
-19.021130325903073 15.0 -6.1803398874989455 0 157 151
-20.92324335849338 15.0 -6.79837387624884 0 159 153
-1.7820130483767358 15.0 -0.9079809994790933 101 128 127
-3.5640260967534716 15.0 -1.8159619989581866 74 132 132
-5.346039145130208 15.0 -2.7239429984372796 27 136 136
-7.128052193506943 15.0 -3.631923997916373 0 140 142
-8.910065241883679 15.0 -4.539904997395467 0 144 147
-10.692078290260415 15.0 -5.447885996874559 0 147 153
-12.47409133863715 15.0 -6.355866996353653 0 149 157
-14.256104387013886 15.0 -7.263847995832746 0 152 162
-16.03811743539062 15.0 -8.17182899531184 0 155 166
-1.618033988749895 15.0 -1.175570504584946 101 127 129
-3.23606797749979 15.0 -2.351141009169892 75 131 136
-4.854101966249685 15.0 -3.5267115137548384 25 135 144
-6.47213595499958 15.0 -4.702282018339784 0 139 152
-8.090169943749475 15.0 -5.87785252292473 0 142 160
-9.70820393249937 15.0 -7.053423027509677 0 146 167
-11.326237921249264 15.0 -8.228993532094622 0 148 173
-12.94427190999916 15.0 -9.404564036679568 0 151 180
-1.4142135623730954 15.0 -1.414213562373095 102 127 131
-2.8284271247461907 15.0 -2.82842712474619 77 131 140
-4.242640687119286 15.0 -4.242640687119285 31 134 150
-5.6568542494923815 15.0 -5.65685424949238 0 138 160
-7.071067811865477 15.0 -7.071067811865475 0 141 169
-8.485281374238571 15.0 -8.48528137423857 0 144 180
-9.899494936611667 15.0 -9.899494936611664 0 147 188
-11.313708498984763 15.0 -11.31370849898476 0 150 197
-1.1755705045849465 15.0 -1.6180339887498947 104 126 132
-2.351141009169893 15.0 -3.2360679774997894 81 130 143
-3.5267115137548393 15.0 -4.854101966249684 44 133 155
-4.702282018339786 15.0 -6.472135954999579 0 135 167
-5.877852522924733 15.0 -8.090169943749473 0 138 179
-7.0534230275096785 15.0 -9.708203932499368 0 141 192
-8.228993532094625 15.0 -11.326237921249263 0 143 203
-9.404564036679572 15.0 -12.944271909999157 0 146 216
-0.9079809994790938 15.0 -1.7820130483767356 106 125 134
-1.8159619989581877 15.0 -3.564026096753471 86 128 146
-2.7239429984372814 15.0 -5.346039145130207 59 131 159
-3.6319239979163753 15.0 -7.128052193506942 0 133 172
-4.539904997395469 15.0 -8.910065241883679 0 135 184
-5.447885996874563 15.0 -10.692078290260413 0 137 198
-6.355866996353657 15.0 -12.474091338637148 0 140 211
-7.263847995832751 15.0 -14.256104387013885 0 142 226
-0.6180339887498951 15.0 -1.902113032590307 109 125 135
-1.2360679774997902 15.0 -3.804226065180614 93 127 148
-1.8541019662496854 15.0 -5.706339097770921 72 129 161
-2.4721359549995805 15.0 -7.608452130361228 35 130 174
-3.0901699437494754 15.0 -9.510565162951535 0 132 188
-3.7082039324993707 15.0 -11.412678195541842 0 134 202
-4.326237921249266 15.0 -13.31479122813215 0 136 216
-4.944271909999161 15.0 -15.216904260722456 0 138 231
-5.562305898749056 15.0 -17.119017293312762 0 140 243
-0.31286893008046207 15.0 -1.9753766811902753 112 124 135
-0.6257378601609241 15.0 -3.9507533623805506 100 125 149
-0.9386067902413862 15.0 -5.926130043570826 85 126 163
-1.2514757203218483 15.0 -7.901506724761101 65 127 177
-1.5643446504023104 15.0 -9.876883405951377 28 128 191
-1.8772135804827723 15.0 -11.852260087141651 0 129 205
-2.1900825105632347 15.0 -13.827636768331928 0 130 219
-2.5029514406436966 15.0 -15.803013449522203 0 131 234
-2.8158203707241585 15.0 -17.778390130712477 0 132 250
-3.6739403974420594e-16 15.0 -2.0 116 123 136
-7.347880794884119e-16 15.0 -4.0 108 123 149
-1.102182119232618e-15 15.0 -6.0 97 123 164
-1.4695761589768238e-15 15.0 -8.0 84 124 177
-1.8369701987210296e-15 15.0 -10.0 67 124 191
-2.204364238465236e-15 15.0 -12.0 37 125 205
-2.5717582782094417e-15 15.0 -14.0 0 125 220
-2.9391523179536475e-15 15.0 -16.0 0 125 235
-3.3065463576978533e-15 15.0 -18.0 0 125 252
0.31286893008046135 15.0 -1.9753766811902755 119 122 136
0.6257378601609227 15.0 -3.950753362380551 116 121 149
0.938606790241384 15.0 -5.926130043570827 111 120 163
1.2514757203218454 15.0 -7.901506724761102 107 119 177
1.5643446504023069 15.0 -9.876883405951379 102 118 190
1.877213580482768 15.0 -11.852260087141653 97 116 204
2.1900825105632293 15.0 -13.827636768331928 90 114 218
2.502951440643691 15.0 -15.803013449522204 83 112 232
2.8158203707241523 15.0 -17.77839013071248 77 109 247
3.1286893008046137 15.0 -19.753766811902757 71 105 255
0.6180339887498945 15.0 -1.9021130325903073 123 121 135
1.236067977499789 15.0 -3.8042260651806146 123 119 148
1.8541019662496834 15.0 -5.706339097770922 123 117 162
2.472135954999578 15.0 -7.608452130361229 123 115 174
3.0901699437494723 15.0 -9.510565162951536 124 112 186
3.7082039324993668 15.0 -11.412678195541844 125 109 198
4.326237921249261 15.0 -13.314791228132151 125 106 211
4.944271909999156 15.0 -15.216904260722458 126 102 224
5.562305898749051 15.0 -17.119017293312766 128 97 234
6.180339887498945 15.0 -19.021130325903073 131 92 246
6.798373876248839 15.0 -20.92324335849338 134 85 255
0.9079809994790933 15.0 -1.782013048376736 125 120 134
1.8159619989581866 15.0 -3.564026096753472 128 117 146
2.7239429984372796 15.0 -5.346039145130208 132 114 158
3.631923997916373 15.0 -7.128052193506944 135 111 170
4.539904997395467 15.0 -8.91006524188368 139 107 180
5.447885996874559 15.0 -10.692078290260415 144 103 191
6.355866996353653 15.0 -12.474091338637152 148 98 202
7.263847995832746 15.0 -14.256104387013888 153 93 212
8.17182899531184 15.0 -16.038117435390625 157 87 222
9.079809994790933 15.0 -17.82013048376736 162 79 232
9.987790994270027 15.0 -19.602143532144098 167 70 243
10.895771993749118 15.0 -21.38415658052083 172 59 253
11.803752993228212 15.0 -23.166169628897567 178 43 255
1.1755705045849458 15.0 -1.6180339887498951 128 119 133
2.3511410091698917 15.0 -3.2360679774997902 133 116 144
3.5267115137548375 15.0 -4.854101966249686 139 112 154
4.702282018339783 15.0 -6.4721359549995805 145 108 165
5.877852522924729 15.0 -8.090169943749476 150 104 174
7.053423027509675 15.0 -9.708203932499371 157 98 184
8.22899353209462 15.0 -11.326237921249266 162 93 193
9.404564036679567 15.0 -12.944271909999161 168 86 203
10.580134541264513 15.0 -14.562305898749056 174 78 212
11.755705045849458 15.0 -16.180339887498953 180 69 221
12.931275550434403 15.0 -17.798373876248846 187 57 230
14.10684605501935 15.0 -19.416407864998742 193 39 240
15.282416559604297 15.0 -21.034441853748636 199 3 249
16.45798706418924 15.0 -22.652475842498532 207 0 255
1.4142135623730947 15.0 -1.4142135623730954 130 119 131
2.8284271247461894 15.0 -2.8284271247461907 139 115 140
4.242640687119284 15.0 -4.242640687119286 147 110 149
5.656854249492379 15.0 -5.6568542494923815 155 105 157
7.071067811865474 15.0 -7.071067811865477 162 99 165
8.485281374238568 15.0 -8.485281374238571 170 93 174
9.899494936611664 15.0 -9.899494936611667 177 86 182
11.313708498984758 15.0 -11.313708498984763 184 78 190
12.727922061357852 15.0 -12.727922061357859 192 67 198
14.142135623730947 15.0 -14.142135623730955 199 54 206
15.556349186104041 15.0 -15.556349186104049 207 32 215
16.970562748477136 15.0 -16.970562748477143 213 0 222
18.38477631085023 15.0 -18.38477631085024 221 0 231
19.798989873223327 15.0 -19.798989873223334 229 0 239
21.21320343559642 15.0 -21.21320343559643 237 0 248
1.6180339887498947 15.0 -1.1755705045849467 132 118 129
3.2360679774997894 15.0 -2.3511410091698934 143 114 135
4.854101966249684 15.0 -3.52671151375484 153 108 143
6.472135954999579 15.0 -4.702282018339787 163 102 150
8.090169943749473 15.0 -5.877852522924734 172 96 156
9.708203932499368 15.0 -7.05342302750968 181 88 163
11.326237921249263 15.0 -8.228993532094627 189 80 170
12.944271909999157 15.0 -9.404564036679574 197 69 176
14.562305898749052 15.0 -10.58013454126452 206 56 183
16.180339887498945 15.0 -11.755705045849467 214 36 190
17.798373876248842 15.0 -12.931275550434414 222 0 197
19.416407864998735 15.0 -14.10684605501936 230 0 203
21.034441853748632 15.0 -15.282416559604307 239 0 211
22.652475842498525 15.0 -16.457987064189254 247 0 217
24.27050983124842 15.0 -17.6335575687742 255 0 225
1.7820130483767356 15.0 -0.9079809994790939 134 118 126
3.564026096753471 15.0 -1.8159619989581879 146 113 131
5.346039145130207 15.0 -2.723942998437282 158 107 136
7.128052193506942 15.0 -3.6319239979163758 170 99 141
8.910065241883679 15.0 -4.539904997395469 180 93 146
10.692078290260413 15.0 -5.447885996874564 190 84 151
12.474091338637148 15.0 -6.355866996353658 200 73 156
14.256104387013885 15.0 -7.2638479958327515 209 61 161
16.03811743539062 15.0 -8.171828995311845 218 44 165
17.820130483767358 15.0 -9.079809994790939 227 7 171
19.60214353214409 15.0 -9.987790994270034 236 0 176
21.384156580520827 15.0 -10.895771993749127 244 0 180
23.166169628897563 15.0 -11.80375299322822 253 0 186
1.902113032590307 15.0 -0.6180339887498953 136 118 124
3.804226065180614 15.0 -1.2360679774997907 150 112 125
5.706339097770921 15.0 -1.854101966249686 163 105 127
7.608452130361228 15.0 -2.4721359549995814 176 98 129
9.510565162951535 15.0 -3.0901699437494767 187 90 132
11.412678195541842 15.0 -3.708203932499372 199 79 134
13.31479122813215 15.0 -4.326237921249268 209 68 137
15.216904260722456 15.0 -4.944271909999163 219 52 139
17.119017293312762 15.0 -5.562305898749058 229 28 142
19.02113032590307 15.0 -6.1803398874989535 239 0 145
20.923243358493377 15.0 -6.798373876248849 249 0 148
22.825356391083684 15.0 -7.416407864998744 255 0 151
1.9753766811902753 15.0 -0.3128689300804622 137 118 122
3.9507533623805506 15.0 -0.6257378601609244 152 112 121
5.926130043570826 15.0 -0.9386067902413866 166 105 121
7.901506724761101 15.0 -1.2514757203218487 180 97 121
9.876883405951377 15.0 -1.5643446504023109 191 88 121
11.852260087141651 15.0 -1.8772135804827732 204 77 122
13.827636768331928 15.0 -2.190082510563235 214 65 122
15.803013449522203 15.0 -2.5029514406436975 225 48 123
17.778390130712477 15.0 -2.81582037072416 235 17 125
19.753766811902754 15.0 -3.1286893008046217 246 0 126
21.72914349309303 15.0 -3.441558230885084 255 0 128
2.0 18.0 -4.898587196589413e-16 164 144 146
4.0 18.0 -9.797174393178826e-16 180 138 143
6.0 18.0 -1.4695761589768238e-15 196 131 139
8.0 18.0 -1.959434878635765e-15 208 125 137
10.0 18.0 -2.4492935982947065e-15 222 116 134
12.0 18.0 -2.9391523179536475e-15 235 107 132
14.0 18.0 -3.429011037612589e-15 246 97 130
16.0 18.0 -3.91886975727153e-15 255 81 128
18.0 18.0 -4.408728476930472e-15 255 64 126
1.9753766811902755 18.0 0.31286893008046174 165 144 144
3.950753362380551 18.0 0.6257378601609235 181 138 139
5.926130043570827 18.0 0.9386067902413853 197 131 133
7.901506724761102 18.0 1.251475720321847 210 124 129
9.876883405951379 18.0 1.5643446504023086 224 116 124
11.852260087141653 18.0 1.8772135804827705 237 106 119
13.827636768331928 18.0 2.190082510563232 249 96 115
15.803013449522204 18.0 2.502951440643694 255 81 111
17.77839013071248 18.0 2.815820370724156 255 64 107
1.902113032590307 18.0 0.6180339887498948 165 144 142
3.804226065180614 18.0 1.2360679774997896 182 138 135
5.706339097770921 18.0 1.8541019662496843 198 131 127
7.608452130361228 18.0 2.472135954999579 212 124 120
9.510565162951535 18.0 3.090169943749474 225 116 113
11.412678195541842 18.0 3.7082039324993685 239 107 106
13.31479122813215 18.0 4.326237921249263 250 97 99
15.216904260722456 18.0 4.944271909999158 255 84 91
17.119017293312762 18.0 5.562305898749053 255 67 84
1.7820130483767358 18.0 0.9079809994790935 166 144 140
3.5640260967534716 18.0 1.815961998958187 183 138 130
5.346039145130208 18.0 2.7239429984372805 198 132 120
7.128052193506943 18.0 3.631923997916374 212 125 110
8.910065241883679 18.0 4.5399049973954675 226 117 99
10.692078290260415 18.0 5.447885996874561 238 109 88
12.47409133863715 18.0 6.3558669963536545 250 99 77
14.256104387013886 18.0 7.263847995832748 255 88 64
16.03811743539062 18.0 8.171828995311841 255 75 51
1.618033988749895 18.0 1.1755705045849463 167 144 137
3.23606797749979 18.0 2.3511410091698925 184 138 124
4.854101966249685 18.0 3.526711513754839 198 133 112
6.47213595499958 18.0 4.702282018339785 211 126 98
8.090169943749475 18.0 5.877852522924732 224 120 83
9.70820393249937 18.0 7.053423027509678 236 112 66
11.326237921249264 18.0 8.228993532094623 246 104 47
12.94427190999916 18.0 9.40456403667957 255 97 19
14.562305898749054 18.0 10.580134541264517 255 88 0
1.4142135623730951 18.0 1.4142135623730951 167 144 134
2.8284271247461903 18.0 2.8284271247461903 182 139 119
4.242640687119286 18.0 4.242640687119286 197 134 103
5.656854249492381 18.0 5.656854249492381 209 129 87
7.0710678118654755 18.0 7.0710678118654755 220 123 69
8.485281374238571 18.0 8.485281374238571 230 118 46
9.899494936611665 18.0 9.899494936611665 237 113 10
11.313708498984761 18.0 11.313708498984761 243 109 0
12.727922061357857 18.0 12.727922061357857 248 105 0
1.1755705045849463 18.0 1.618033988749895 166 144 131
2.3511410091698925 18.0 3.23606797749979 181 140 114
3.526711513754839 18.0 4.854101966249685 193 136 95
4.702282018339785 18.0 6.47213595499958 204 132 75
5.877852522924732 18.0 8.090169943749475 214 128 52
7.053423027509678 18.0 9.70820393249937 221 124 20
8.228993532094623 18.0 11.326237921249264 227 121 0
9.40456403667957 18.0 12.94427190999916 231 119 0
10.580134541264517 18.0 14.562305898749054 234 117 0
0.9079809994790936 18.0 1.7820130483767356 165 145 129
1.8159619989581872 18.0 3.564026096753471 178 142 109
2.723942998437281 18.0 5.346039145130207 189 139 88
3.6319239979163744 18.0 7.128052193506942 199 135 65
4.539904997395468 18.0 8.910065241883679 206 133 36
5.447885996874562 18.0 10.692078290260413 212 130 0
6.355866996353655 18.0 12.474091338637148 215 129 0
7.263847995832749 18.0 14.256104387013885 219 127 0
0.6180339887498949 18.0 1.902113032590307 163 146 126
1.2360679774997898 18.0 3.804226065180614 174 144 104
1.8541019662496847 18.0 5.706339097770921 184 141 80
2.4721359549995796 18.0 7.608452130361228 192 139 54
3.0901699437494745 18.0 9.510565162951535 197 137 16
3.7082039324993694 18.0 11.412678195541842 202 136 0
4.326237921249264 18.0 13.31479122813215 205 135 0
0.31286893008046185 18.0 1.9753766811902755 160 147 123
0.6257378601609237 18.0 3.950753362380551 169 146 100
0.9386067902413855 18.0 5.926130043570827 177 144 73
1.2514757203218474 18.0 7.901506724761102 184 143 43
1.5643446504023093 18.0 9.876883405951379 188 142 0
1.877213580482771 18.0 11.852260087141653 191 141 0
2.190082510563233 18.0 13.827636768331928 193 140 0
1.2246467991473532e-16 18.0 2.0 157 149 122
2.4492935982947064e-16 18.0 4.0 163 148 97
3.6739403974420594e-16 18.0 6.0 170 147 69
4.898587196589413e-16 18.0 8.0 174 147 34
6.123233995736766e-16 18.0 10.0 178 146 0
7.347880794884119e-16 18.0 12.0 180 146 0
8.572527594031472e-16 18.0 14.0 181 146 0
-0.3128689300804616 18.0 1.9753766811902755 154 149 122
-0.6257378601609233 18.0 3.950753362380551 159 150 96
-0.9386067902413848 18.0 5.926130043570827 163 150 66
-1.2514757203218465 18.0 7.901506724761102 166 150 29
-1.5643446504023082 18.0 9.876883405951379 168 150 0
-1.8772135804827697 18.0 11.852260087141653 169 150 0
-2.1900825105632316 18.0 13.827636768331928 170 150 0
-0.6180339887498947 18.0 1.9021130325903073 152 150 122
-1.2360679774997894 18.0 3.8042260651806146 154 151 96
-1.854101966249684 18.0 5.706339097770922 156 152 67
-2.4721359549995787 18.0 7.608452130361229 157 153 29
-3.0901699437494736 18.0 9.510565162951536 158 153 0
-3.708203932499368 18.0 11.412678195541844 159 153 0
-4.3262379212492625 18.0 13.314791228132151 159 154 0
-0.9079809994790935 18.0 1.7820130483767358 148 151 123
-1.815961998958187 18.0 3.5640260967534716 147 153 99
-2.7239429984372805 18.0 5.346039145130208 146 155 72
-3.631923997916374 18.0 7.128052193506943 145 156 36
-4.5399049973954675 18.0 8.910065241883679 144 157 0
-5.447885996874561 18.0 10.692078290260415 144 158 0
-6.3558669963536545 18.0 12.47409133863715 143 158 0
-1.175570504584946 18.0 1.618033988749895 145 152 125
-2.351141009169892 18.0 3.23606797749979 141 155 103
-3.5267115137548384 18.0 4.854101966249685 137 157 79
-4.702282018339784 18.0 6.47213595499958 132 159 49
-5.87785252292473 18.0 8.090169943749475 128 161 0
-7.053423027509677 18.0 9.70820393249937 124 162 0
-8.228993532094622 18.0 11.326237921249264 122 163 0
-1.414213562373095 18.0 1.4142135623730951 139 153 129
-2.82842712474619 18.0 2.8284271247461903 131 157 111
-4.242640687119285 18.0 4.242640687119286 122 160 92
-5.65685424949238 18.0 5.656854249492381 111 163 69
-7.071067811865475 18.0 7.0710678118654755 101 166 43
-8.48528137423857 18.0 8.485281374238571 90 168 0
-9.899494936611664 18.0 9.899494936611665 77 170 0
-11.31370849898476 18.0 11.313708498984761 67 171 0
-1.6180339887498947 18.0 1.1755705045849465 135 154 133
-3.2360679774997894 18.0 2.351141009169893 122 158 119
-4.854101966249684 18.0 3.5267115137548393 109 162 104
-6.472135954999579 18.0 4.702282018339786 93 165 88
-8.090169943749473 18.0 5.877852522924733 73 168 71
-9.708203932499368 18.0 7.0534230275096785 45 171 52
-11.326237921249263 18.0 8.228993532094625 0 174 22
-12.944271909999157 18.0 9.404564036679572 0 177 0
-14.562305898749052 18.0 10.580134541264519 0 179 0
-16.180339887498945 18.0 11.755705045849465 0 181 0
-1.7820130483767356 18.0 0.9079809994790937 131 154 137
-3.564026096753471 18.0 1.8159619989581874 114 159 127
-5.346039145130207 18.0 2.7239429984372814 94 163 118
-7.128052193506942 18.0 3.631923997916375 68 167 109
-8.910065241883679 18.0 4.539904997395468 20 171 99
-10.692078290260413 18.0 5.447885996874563 0 174 91
-12.474091338637148 18.0 6.355866996353656 0 177 82
-14.256104387013885 18.0 7.26384799583275 0 180 73
-16.03811743539062 18.0 8.171828995311843 0 182 65
-17.820130483767358 18.0 9.079809994790937 0 185 57
-19.60214353214409 18.0 9.98779099427003 0 187 50
-21.384156580520827 18.0 10.895771993749126 0 189 42
-23.166169628897563 18.0 11.803752993228219 0 191 35
-24.948182677274296 18.0 12.711733992707313 0 192 27
-1.902113032590307 18.0 0.618033988749895 129 155 141
-3.804226065180614 18.0 1.23606797749979 108 160 134
-5.706339097770921 18.0 1.8541019662496852 84 164 128
-7.608452130361228 18.0 2.47213595499958 49 168 122
-9.510565162951535 18.0 3.090169943749475 0 171 118
-11.412678195541842 18.0 3.7082039324993703 0 175 113
-13.31479122813215 18.0 4.326237921249265 0 178 110
-15.216904260722456 18.0 4.94427190999916 0 181 107
-17.119017293312762 18.0 5.562305898749055 0 183 104
-19.02113032590307 18.0 6.18033988749895 0 185 101
-20.923243358493377 18.0 6.798373876248845 0 188 99
-22.825356391083684 18.0 7.416407864998741 0 190 98
-24.72746942367399 18.0 8.034441853748636 0 191 96
-26.6295824562643 18.0 8.65247584249853 0 193 95
-1.9753766811902753 18.0 0.31286893008046196 128 155 143
-3.9507533623805506 18.0 0.6257378601609239 105 160 138
-5.926130043570826 18.0 0.9386067902413859 78 164 134
-7.901506724761101 18.0 1.2514757203218478 34 168 131
-9.876883405951377 18.0 1.5643446504023097 0 172 128
-11.852260087141651 18.0 1.8772135804827719 0 175 125
-13.827636768331928 18.0 2.1900825105632338 0 178 123
-15.803013449522203 18.0 2.5029514406436957 0 181 121
-17.778390130712477 18.0 2.8158203707241576 0 183 119
-19.753766811902754 18.0 3.1286893008046195 0 186 118
-21.72914349309303 18.0 3.4415582308850814 0 188 117
-23.704520174283303 18.0 3.7544271609655437 0 190 116
-25.67989685547358 18.0 4.067296091046005 0 191 115
-27.655273536663856 18.0 4.3801650211264676 0 193 114
-2.0 18.0 2.4492935982947064e-16 127 155 145
-4.0 18.0 4.898587196589413e-16 102 160 143
-6.0 18.0 7.347880794884119e-16 74 164 141
-8.0 18.0 9.797174393178826e-16 10 168 139
-10.0 18.0 1.2246467991473533e-15 0 172 137
-12.0 18.0 1.4695761589768238e-15 0 175 136
-14.0 18.0 1.7145055188062944e-15 0 178 135
-16.0 18.0 1.959434878635765e-15 0 181 134
-18.0 18.0 2.204364238465236e-15 0 184 134
-20.0 18.0 2.4492935982947065e-15 0 186 133
-22.0 18.0 2.6942229581241772e-15 0 188 133
-24.0 18.0 2.9391523179536475e-15 0 190 133
-26.0 18.0 3.184081677783118e-15 0 191 133
-1.9753766811902755 18.0 -0.31286893008046146 126 155 147
-3.950753362380551 18.0 -0.6257378601609229 100 160 147
-5.926130043570827 18.0 -0.9386067902413844 69 164 147
-7.901506724761102 18.0 -1.2514757203218458 0 168 147
-9.876883405951379 18.0 -1.5643446504023073 0 172 148
-11.852260087141653 18.0 -1.8772135804827688 0 175 148
-13.827636768331928 18.0 -2.1900825105632302 0 178 149
-15.803013449522204 18.0 -2.5029514406436917 0 181 150
-17.77839013071248 18.0 -2.815820370724153 0 184 151
-19.753766811902757 18.0 -3.1286893008046146 0 186 152
-21.72914349309303 18.0 -3.441558230885076 0 188 154
-1.9021130325903073 18.0 -0.6180339887498946 126 154 150
-3.8042260651806146 18.0 -1.2360679774997891 99 159 153
-5.706339097770922 18.0 -1.8541019662496838 63 164 155
-7.608452130361229 18.0 -2.4721359549995783 0 168 158
-9.510565162951536 18.0 -3.0901699437494727 0 171 160
-11.412678195541844 18.0 -3.7082039324993676 0 175 163
-13.314791228132151 18.0 -4.326237921249262 0 178 166
-15.216904260722458 18.0 -4.9442719099991566 0 181 169
-17.119017293312766 18.0 -5.5623058987490515 0 183 171
-19.021130325903073 18.0 -6.1803398874989455 0 186 174
-1.7820130483767358 18.0 -0.9079809994790933 126 154 153
-3.5640260967534716 18.0 -1.8159619989581866 98 159 158
-5.346039145130208 18.0 -2.7239429984372796 60 163 162
-7.128052193506943 18.0 -3.631923997916373 0 167 167
-8.910065241883679 18.0 -4.539904997395467 0 171 171
-10.692078290260415 18.0 -5.447885996874559 0 174 176
-12.47409133863715 18.0 -6.355866996353653 0 177 180
-14.256104387013886 18.0 -7.263847995832746 0 180 185
-16.03811743539062 18.0 -8.17182899531184 0 183 189
-1.618033988749895 18.0 -1.175570504584946 126 154 155
-3.23606797749979 18.0 -2.351141009169892 99 158 162
-4.854101966249685 18.0 -3.5267115137548384 60 162 170
-6.47213595499958 18.0 -4.702282018339784 0 166 176
-8.090169943749475 18.0 -5.87785252292473 0 170 183
-9.70820393249937 18.0 -7.053423027509677 0 173 191
-11.326237921249264 18.0 -8.228993532094622 0 176 197
-12.94427190999916 18.0 -9.404564036679568 0 179 204
-14.562305898749054 18.0 -10.580134541264515 0 182 211
-1.4142135623730954 18.0 -1.414213562373095 128 153 157
-2.8284271247461907 18.0 -2.82842712474619 102 157 166
-4.242640687119286 18.0 -4.242640687119285 64 161 176
-5.6568542494923815 18.0 -5.65685424949238 0 165 185
-7.071067811865477 18.0 -7.071067811865475 0 168 194
-8.485281374238571 18.0 -8.48528137423857 0 171 204
-9.899494936611667 18.0 -9.899494936611664 0 174 213
-11.313708498984763 18.0 -11.31370849898476 0 178 223
-1.1755705045849465 18.0 -1.6180339887498947 130 152 158
-2.351141009169893 18.0 -3.2360679774997894 107 156 169
-3.5267115137548393 18.0 -4.854101966249684 75 160 181
-4.702282018339786 18.0 -6.472135954999579 0 163 193
-5.877852522924733 18.0 -8.090169943749473 0 165 205
-7.0534230275096785 18.0 -9.708203932499368 0 168 217
-8.228993532094625 18.0 -11.326237921249263 0 171 230
-9.404564036679572 18.0 -12.944271909999157 0 174 243
-0.9079809994790938 18.0 -1.7820130483767356 133 152 159
-1.8159619989581877 18.0 -3.564026096753471 113 155 171
-2.7239429984372814 18.0 -5.346039145130207 87 157 185
-3.6319239979163753 18.0 -7.128052193506942 45 160 198
-4.539904997395469 18.0 -8.910065241883679 0 162 211
-5.447885996874563 18.0 -10.692078290260413 0 165 225
-6.355866996353657 18.0 -12.474091338637148 0 167 239
-7.263847995832751 18.0 -14.256104387013885 0 170 255
-0.6180339887498951 18.0 -1.902113032590307 136 151 160
-1.2360679774997902 18.0 -3.804226065180614 120 153 173
-1.8541019662496854 18.0 -5.706339097770921 99 155 187
-2.4721359549995805 18.0 -7.608452130361228 71 157 201
-3.0901699437494754 18.0 -9.510565162951535 0 159 214
-3.7082039324993707 18.0 -11.412678195541842 0 161 230
-4.326237921249266 18.0 -13.31479122813215 0 163 245
-4.944271909999161 18.0 -15.216904260722456 0 166 255
-0.31286893008046207 18.0 -1.9753766811902753 139 150 161
-0.6257378601609241 18.0 -3.9507533623805506 127 151 174
-0.9386067902413862 18.0 -5.926130043570826 112 153 189
-1.2514757203218483 18.0 -7.901506724761101 94 154 203
-1.5643446504023104 18.0 -9.876883405951377 68 155 218
-1.8772135804827723 18.0 -11.852260087141651 0 156 234
-2.1900825105632347 18.0 -13.827636768331928 0 157 249
-3.6739403974420594e-16 18.0 -2.0 142 149 161
-7.347880794884119e-16 18.0 -4.0 134 149 174
-1.102182119232618e-15 18.0 -6.0 123 150 190
-1.4695761589768238e-15 18.0 -8.0 111 150 204
-1.8369701987210296e-15 18.0 -10.0 96 151 218
-2.204364238465236e-15 18.0 -12.0 71 151 234
-2.5717582782094417e-15 18.0 -14.0 23 152 251
0.31286893008046135 18.0 -1.9753766811902755 146 148 161
0.6257378601609227 18.0 -3.950753362380551 142 147 174
0.938606790241384 18.0 -5.926130043570827 137 146 189
1.2514757203218454 18.0 -7.901506724761102 133 146 203
1.5643446504023069 18.0 -9.876883405951379 128 144 216
1.877213580482768 18.0 -11.852260087141653 121 143 233
2.1900825105632293 18.0 -13.827636768331928 113 141 249
0.6180339887498945 18.0 -1.9021130325903073 149 147 160
1.236067977499789 18.0 -3.8042260651806146 148 146 174
1.8541019662496834 18.0 -5.706339097770922 148 144 187
2.472135954999578 18.0 -7.608452130361229 148 142 200
3.0901699437494723 18.0 -9.510565162951536 148 139 213
3.7082039324993668 18.0 -11.412678195541844 148 136 227
4.326237921249261 18.0 -13.314791228132151 148 133 241
4.944271909999156 18.0 -15.216904260722458 149 129 255
0.9079809994790933 18.0 -1.782013048376736 151 146 160
1.8159619989581866 18.0 -3.564026096753472 154 144 172
2.7239429984372796 18.0 -5.346039145130208 157 141 185
3.631923997916373 18.0 -7.128052193506944 160 138 196
4.539904997395467 18.0 -8.91006524188368 164 134 208
5.447885996874559 18.0 -10.692078290260415 168 130 220
6.355866996353653 18.0 -12.474091338637152 172 126 231
7.263847995832746 18.0 -14.256104387013888 178 120 243
8.17182899531184 18.0 -16.038117435390625 182 115 254
1.1755705045849458 18.0 -1.6180339887498951 153 146 159
2.3511410091698917 18.0 -3.2360679774997902 159 143 169
3.5267115137548375 18.0 -4.854101966249686 165 139 181
4.702282018339783 18.0 -6.4721359549995805 170 135 191
5.877852522924729 18.0 -8.090169943749476 176 131 202
7.053423027509675 18.0 -9.708203932499371 181 126 211
8.22899353209462 18.0 -11.326237921249266 188 120 222
9.404564036679567 18.0 -12.944271909999161 194 114 233
10.580134541264513 18.0 -14.562305898749056 200 108 243
11.755705045849458 18.0 -16.180339887498953 207 99 254
1.4142135623730947 18.0 -1.4142135623730954 157 145 156
2.8284271247461894 18.0 -2.8284271247461907 165 141 165
4.242640687119284 18.0 -4.242640687119286 173 136 174
5.656854249492379 18.0 -5.6568542494923815 181 132 183
7.071067811865474 18.0 -7.071067811865477 190 126 192
8.485281374238568 18.0 -8.485281374238571 197 120 200
9.899494936611664 18.0 -9.899494936611667 205 114 208
11.313708498984758 18.0 -11.313708498984763 213 106 217
12.727922061357852 18.0 -12.727922061357859 220 98 225
14.142135623730947 18.0 -14.142135623730955 230 85 235
15.556349186104041 18.0 -15.556349186104049 239 71 245
16.970562748477136 18.0 -16.970562748477143 247 52 254
1.6180339887498947 18.0 -1.1755705045849467 159 145 154
3.2360679774997894 18.0 -2.3511410091698934 168 140 161
4.854101966249684 18.0 -3.52671151375484 179 135 168
6.472135954999579 18.0 -4.702282018339787 189 129 175
8.090169943749473 18.0 -5.877852522924734 199 123 182
9.708203932499368 18.0 -7.05342302750968 208 116 189
11.326237921249263 18.0 -8.228993532094627 218 108 196
12.944271909999157 18.0 -9.404564036679574 226 99 203
14.562305898749052 18.0 -10.58013454126452 235 90 210
16.180339887498945 18.0 -11.755705045849467 245 75 218
17.798373876248842 18.0 -12.931275550434414 254 57 225
19.416407864998735 18.0 -14.10684605501936 255 28 232
21.034441853748632 18.0 -15.282416559604307 255 0 240
1.7820130483767356 18.0 -0.9079809994790939 160 144 152
3.564026096753471 18.0 -1.8159619989581879 172 139 156
5.346039145130207 18.0 -2.723942998437282 185 133 161
7.128052193506942 18.0 -3.6319239979163758 196 127 166
8.910065241883679 18.0 -4.539904997395469 206 121 170
10.692078290260413 18.0 -5.447885996874564 217 113 175
12.474091338637148 18.0 -6.355866996353658 228 103 180
14.256104387013885 18.0 -7.2638479958327515 239 93 185
16.03811743539062 18.0 -8.171828995311845 248 80 190
17.820130483767358 18.0 -9.079809994790939 255 62 196
19.60214353214409 18.0 -9.987790994270034 255 41 201
21.384156580520827 18.0 -10.895771993749127 255 0 206
1.902113032590307 18.0 -0.6180339887498953 162 144 150
3.804226065180614 18.0 -1.2360679774997907 176 139 151
5.706339097770921 18.0 -1.854101966249686 190 132 153
7.608452130361228 18.0 -2.4721359549995814 202 126 154
9.510565162951535 18.0 -3.0901699437494767 214 119 156
11.412678195541842 18.0 -3.708203932499372 226 110 158
13.31479122813215 18.0 -4.326237921249268 238 99 161
15.216904260722456 18.0 -4.944271909999163 249 87 163
17.119017293312762 18.0 -5.562305898749058 255 72 166
19.02113032590307 18.0 -6.1803398874989535 255 46 169
20.923243358493377 18.0 -6.798373876248849 255 4 171
1.9753766811902753 18.0 -0.3128689300804622 163 144 148
3.9507533623805506 18.0 -0.6257378601609244 178 138 147
5.926130043570826 18.0 -0.9386067902413866 193 131 146
7.901506724761101 18.0 -1.2514757203218487 205 125 146
9.876883405951377 18.0 -1.5643446504023109 218 117 145
11.852260087141651 18.0 -1.8772135804827732 231 108 146
13.827636768331928 18.0 -2.190082510563235 243 97 146
15.803013449522203 18.0 -2.5029514406436975 255 83 147
17.778390130712477 18.0 -2.81582037072416 255 68 148
19.753766811902754 18.0 -3.1286893008046217 255 40 149
2.0 21.0 -4.898587196589413e-16 190 170 172
4.0 21.0 -9.797174393178826e-16 206 165 169
6.0 21.0 -1.4695761589768238e-15 222 158 165
8.0 21.0 -1.959434878635765e-15 237 151 162
10.0 21.0 -2.4492935982947065e-15 251 143 159
12.0 21.0 -2.9391523179536475e-15 255 133 156
14.0 21.0 -3.429011037612589e-15 255 122 153
16.0 21.0 -3.91886975727153e-15 255 110 151
1.9753766811902755 21.0 0.31286893008046174 191 170 170
3.950753362380551 21.0 0.6257378601609235 207 165 165
5.926130043570827 21.0 0.9386067902413853 224 158 159
7.901506724761102 21.0 1.251475720321847 239 151 154
9.876883405951379 21.0 1.5643446504023086 253 143 148
11.852260087141653 21.0 1.8772135804827705 255 133 142
13.827636768331928 21.0 2.190082510563232 255 122 138
15.803013449522204 21.0 2.502951440643694 255 110 133
1.902113032590307 21.0 0.6180339887498948 191 170 169
3.804226065180614 21.0 1.2360679774997896 209 164 161
5.706339097770921 21.0 1.8541019662496843 225 158 153
7.608452130361228 21.0 2.472135954999579 241 151 145
9.510565162951535 21.0 3.090169943749474 255 143 138
11.412678195541842 21.0 3.7082039324993685 255 133 129
13.31479122813215 21.0 4.326237921249263 255 123 122
1.7820130483767358 21.0 0.9079809994790935 192 170 166
3.5640260967534716 21.0 1.815961998958187 210 164 156
5.346039145130208 21.0 2.7239429984372805 226 158 146
7.128052193506943 21.0 3.631923997916374 242 151 134
8.910065241883679 21.0 4.5399049973954675 255 144 124
10.692078290260415 21.0 5.447885996874561 255 135 112
12.47409133863715 21.0 6.3558669963536545 255 126 100
14.256104387013886 21.0 7.263847995832748 255 116 86
1.618033988749895 21.0 1.1755705045849463 193 170 164
3.23606797749979 21.0 2.3511410091698925 210 165 150
4.854101966249685 21.0 3.526711513754839 226 159 137
6.47213595499958 21.0 4.702282018339785 241 153 122
8.090169943749475 21.0 5.877852522924732 254 147 108
9.70820393249937 21.0 7.053423027509678 255 139 91
11.326237921249264 21.0 8.228993532094623 255 132 72
12.94427190999916 21.0 9.40456403667957 255 123 49
1.4142135623730951 21.0 1.4142135623730951 193 170 161
2.8284271247461903 21.0 2.8284271247461903 210 166 145
4.242640687119286 21.0 4.242640687119286 225 160 128
5.656854249492381 21.0 5.656854249492381 238 155 111
7.0710678118654755 21.0 7.0710678118654755 249 150 95
8.485281374238571 21.0 8.485281374238571 255 144 72
9.899494936611665 21.0 9.899494936611665 255 139 43
11.313708498984761 21.0 11.313708498984761 255 134 0
12.727922061357857 21.0 12.727922061357857 255 130 0
14.142135623730951 21.0 14.142135623730951 255 127 0
1.1755705045849463 21.0 1.618033988749895 193 171 157
2.3511410091698925 21.0 3.23606797749979 208 167 139
3.526711513754839 21.0 4.854101966249685 221 163 119
4.702282018339785 21.0 6.47213595499958 233 159 101
5.877852522924732 21.0 8.090169943749475 243 155 79
7.053423027509678 21.0 9.70820393249937 252 150 51
8.228993532094623 21.0 11.326237921249264 255 147 0
9.40456403667957 21.0 12.94427190999916 255 144 0
10.580134541264517 21.0 14.562305898749054 255 142 0
11.755705045849464 21.0 16.18033988749895 255 141 0
0.9079809994790936 21.0 1.7820130483767356 192 172 154
1.8159619989581872 21.0 3.564026096753471 205 168 134
2.723942998437281 21.0 5.346039145130207 217 165 112
3.6319239979163744 21.0 7.128052193506942 227 162 90
4.539904997395468 21.0 8.910065241883679 235 159 65
5.447885996874562 21.0 10.692078290260413 243 156 28
6.355866996353655 21.0 12.474091338637148 248 154 0
7.263847995832749 21.0 14.256104387013885 251 153 0
8.171828995311843 21.0 16.03811743539062 254 152 0
0.6180339887498949 21.0 1.902113032590307 189 173 151
1.2360679774997898 21.0 3.804226065180614 201 170 128
1.8541019662496847 21.0 5.706339097770921 211 168 104
2.4721359549995796 21.0 7.608452130361228 219 166 80
3.0901699437494745 21.0 9.510565162951535 226 164 51
3.7082039324993694 21.0 11.412678195541842 232 162 0
4.326237921249264 21.0 13.31479122813215 236 161 0
4.944271909999159 21.0 15.216904260722456 239 160 0
5.562305898749054 21.0 17.119017293312762 240 159 0
0.31286893008046185 21.0 1.9753766811902755 186 174 148
0.6257378601609237 21.0 3.950753362380551 196 172 124
0.9386067902413855 21.0 5.926130043570827 205 171 99
1.2514757203218474 21.0 7.901506724761102 211 170 72
1.5643446504023093 21.0 9.876883405951379 217 168 34
1.877213580482771 21.0 11.852260087141653 221 167 0
2.190082510563233 21.0 13.827636768331928 224 167 0
2.502951440643695 21.0 15.803013449522204 226 166 0
1.2246467991473532e-16 21.0 2.0 183 175 147
2.4492935982947064e-16 21.0 4.0 190 175 121
3.6739403974420594e-16 21.0 6.0 196 174 94
4.898587196589413e-16 21.0 8.0 201 174 64
6.123233995736766e-16 21.0 10.0 205 173 14
7.347880794884119e-16 21.0 12.0 208 173 0
8.572527594031472e-16 21.0 14.0 210 172 0
9.797174393178826e-16 21.0 16.0 211 172 0
-0.3128689300804616 21.0 1.9753766811902755 181 176 147
-0.6257378601609233 21.0 3.950753362380551 185 176 120
-0.9386067902413848 21.0 5.926130043570827 189 177 92
-1.2514757203218465 21.0 7.901506724761102 192 177 61
-1.5643446504023082 21.0 9.876883405951379 195 177 0
-1.8772135804827697 21.0 11.852260087141653 197 177 0
-2.1900825105632316 21.0 13.827636768331928 198 177 0
-2.502951440643693 21.0 15.803013449522204 199 177 0
-0.6180339887498947 21.0 1.9021130325903073 178 177 147
-1.2360679774997894 21.0 3.8042260651806146 181 178 120
-1.854101966249684 21.0 5.706339097770922 183 179 93
-2.4721359549995787 21.0 7.608452130361229 184 180 60
-3.0901699437494736 21.0 9.510565162951536 186 180 0
-3.708203932499368 21.0 11.412678195541844 186 180 0
-4.3262379212492625 21.0 13.314791228132151 187 181 0
-4.944271909999157 21.0 15.216904260722458 187 181 0
-0.9079809994790935 21.0 1.7820130483767358 175 178 148
-1.815961998958187 21.0 3.5640260967534716 174 180 123
-2.7239429984372805 21.0 5.346039145130208 173 181 97
-3.631923997916374 21.0 7.128052193506943 172 183 66
-4.5399049973954675 21.0 8.910065241883679 171 184 11
-5.447885996874561 21.0 10.692078290260415 171 185 0
-6.3558669963536545 21.0 12.47409133863715 170 186 0
-7.263847995832748 21.0 14.256104387013886 170 186 0
-1.175570504584946 21.0 1.618033988749895 171 178 150
-2.351141009169892 21.0 3.23606797749979 167 181 127
-3.5267115137548384 21.0 4.854101966249685 164 184 104
-4.702282018339784 21.0 6.47213595499958 160 186 77
-5.87785252292473 21.0 8.090169943749475 155 188 38
-7.053423027509677 21.0 9.70820393249937 151 190 0
-8.228993532094622 21.0 11.326237921249264 148 191 0
-9.404564036679568 21.0 12.94427190999916 146 191 0
-1.414213562373095 21.0 1.4142135623730951 165 180 154
-2.82842712474619 21.0 2.8284271247461903 157 183 135
-4.242640687119285 21.0 4.242640687119286 148 187 116
-5.65685424949238 21.0 5.656854249492381 139 190 95
-7.071067811865475 21.0 7.0710678118654755 129 193 70
-8.48528137423857 21.0 8.485281374238571 118 195 36
-9.899494936611664 21.0 9.899494936611665 107 198 0
-11.31370849898476 21.0 11.313708498984761 97 199 0
-12.727922061357855 21.0 12.727922061357857 88 201 0
-1.6180339887498947 21.0 1.1755705045849465 161 180 158
-3.2360679774997894 21.0 2.351141009169893 148 185 143
-4.854101966249684 21.0 3.5267115137548393 136 189 128
-6.472135954999579 21.0 4.702282018339786 121 192 112
-8.090169943749473 21.0 5.877852522924733 103 196 95
-9.708203932499368 21.0 7.0534230275096785 81 199 77
-11.326237921249263 21.0 8.228993532094625 50 202 55
-12.944271909999157 21.0 9.404564036679572 0 205 21
-14.562305898749052 21.0 10.580134541264519 0 207 0
-16.180339887498945 21.0 11.755705045849465 0 210 0
-17.798373876248842 21.0 12.931275550434412 0 212 0
-1.7820130483767356 21.0 0.9079809994790937 157 181 163
-3.564026096753471 21.0 1.8159619989581874 140 186 152
-5.346039145130207 21.0 2.7239429984372814 121 190 143
-7.128052193506942 21.0 3.631923997916375 98 194 132
-8.910065241883679 21.0 4.539904997395468 67 198 122
-10.692078290260413 21.0 5.447885996874563 0 202 112
-12.474091338637148 21.0 6.355866996353656 0 205 103
-14.256104387013885 21.0 7.26384799583275 0 208 93
-16.03811743539062 21.0 8.171828995311843 0 211 84
-17.820130483767358 21.0 9.079809994790937 0 213 75
-19.60214353214409 21.0 9.98779099427003 0 216 66
-21.384156580520827 21.0 10.895771993749126 0 218 57
-23.166169628897563 21.0 11.803752993228219 0 220 47
-1.902113032590307 21.0 0.618033988749895 154 181 166
-3.804226065180614 21.0 1.23606797749979 134 186 159
-5.706339097770921 21.0 1.8541019662496852 112 191 153
-7.608452130361228 21.0 2.47213595499958 83 195 147
-9.510565162951535 21.0 3.090169943749475 24 199 142
-11.412678195541842 21.0 3.7082039324993703 0 203 137
-13.31479122813215 21.0 4.326237921249265 0 206 132
-15.216904260722456 21.0 4.94427190999916 0 209 128
-17.119017293312762 21.0 5.562305898749055 0 212 125
-19.02113032590307 21.0 6.18033988749895 0 215 122
-20.923243358493377 21.0 6.798373876248845 0 217 120
-22.825356391083684 21.0 7.416407864998741 0 219 118
-24.72746942367399 21.0 8.034441853748636 0 221 116
-1.9753766811902753 21.0 0.31286893008046196 153 181 169
-3.9507533623805506 21.0 0.6257378601609239 132 187 164
-5.926130043570826 21.0 0.9386067902413859 107 191 160
-7.901506724761101 21.0 1.2514757203218478 74 195 156
-9.876883405951377 21.0 1.5643446504023097 0 199 152
-11.852260087141651 21.0 1.8772135804827719 0 203 149
-13.827636768331928 21.0 2.1900825105632338 0 207 146
-15.803013449522203 21.0 2.5029514406436957 0 210 144
-17.778390130712477 21.0 2.8158203707241576 0 212 142
-19.753766811902754 21.0 3.1286893008046195 0 215 140
-21.72914349309303 21.0 3.4415582308850814 0 217 138
-23.704520174283303 21.0 3.7544271609655437 0 219 137
-25.67989685547358 21.0 4.067296091046005 0 221 136
-2.0 21.0 2.4492935982947064e-16 152 181 171
-4.0 21.0 4.898587196589413e-16 129 187 168
-6.0 21.0 7.347880794884119e-16 103 191 166
-8.0 21.0 9.797174393178826e-16 64 195 164
-10.0 21.0 1.2246467991473533e-15 0 200 162
-12.0 21.0 1.4695761589768238e-15 0 203 160
-14.0 21.0 1.7145055188062944e-15 0 207 159
-16.0 21.0 1.959434878635765e-15 0 210 158
-18.0 21.0 2.204364238465236e-15 0 212 157
-20.0 21.0 2.4492935982947065e-15 0 215 156
-22.0 21.0 2.6942229581241772e-15 0 218 156
-24.0 21.0 2.9391523179536475e-15 0 220 155
-1.9753766811902755 21.0 -0.31286893008046146 152 181 173
-3.950753362380551 21.0 -0.6257378601609229 128 186 172
-5.926130043570827 21.0 -0.9386067902413844 100 191 172
-7.901506724761102 21.0 -1.2514757203218458 54 195 171
-9.876883405951379 21.0 -1.5643446504023073 0 200 172
